210.299	61.603	38	3.3
210.748	60.901	30.7	3.1
218.6	61.149	0	3
211.209	64.815	16.9	3.3
211.75	63.04	63.7	3.3
210.27	61.6	36.2	3.9
210.59	62.18	46.4	3.2
214.72	63.36	7.2	3.9
213.55	61.48	20.1	3.7
214.76	63.34	0	3.2
211.23	62.83	65.7	3
210.401	60.415	29.8	3.5
215.099	59.388	10	3.1
210.9	63.55	6.5	3.4
214.726	63.365	3.5	3.5
214.201	59.609	10	3.7
214.561	61.106	25.1	3.2
218.774	62.131	5.7	3.2
211.692	62.701	50.8	3.3
211.669	62.667	38.1	3
213.113	60.425	20.2	3.2
212.594	63.241	9.8	3.2
213.758	59.657	0	3.4
213.901	60.283	3.4	3
218.638	58.718	10	3.2
214.951	59.38	33	5
211.23	62.817	11.3	3.4
215.343	59.162	10	3.1
211.051	62.761	61.8	3.1
214.809	59.197	10	3.6
210.058	62.516	65	3
213.295	61.506	17.3	3.8
211.181	62.915	67.4	3.2
210.129	61.988	48.1	4.3
210.397	61.814	47.1	4.7
214.284	58.989	10	3.8
214.75	59.1	10	3.1
210.188	61.768	39.3	3
210.685	62.459	57.8	3.2
211.481	61.226	29.1	3.3
210.331	57.084	10	3.1
210.506	62.755	68.3	3.2
212.598	63.952	5.4	3.3
210.635	64.003	11.8	3.9
215.447	63.405	7.7	3.1
211.789	61.463	33.2	3.7
212.73	63.506	7.5	3
213.856	61.009	23	3.1
214.785	63.36	3.3	3.5
212.518	61.467	19.7	3.1
211.096	61.819	17.1	3.5
213.517	61.56	30.4	4.3
214.821	63.371	3.6	3.9
210.581	61.226	47	3
213.342	61.452	8.7	3.1
210.061	61.582	47.5	3.7
215.187	61.6	37.5	4.3
218.866	60.165	0.7	3.6
218.869	60.082	0	3.5
213.347	61.495	21.5	3.2
214.718	63.371	7.9	3.9
214.73	63.358	4.1	3.4
211.291	62.718	58.6	3
210.34	61.635	36.7	3.5
212.304	60.362	9	3.1
210.422	64.814	19.5	3.6
210.307	61.785	40.2	3.5
219.337	60.153	10	3.1
212.631	60.489	10	3.3
212.65	60.49	15	3.5
212.313	61.18	18.9	3
211.736	62.785	60.4	3.2
211.563	62.043	45	3.7
210.456	62.598	64.8	3
211.461	61.828	10	4
216.985	57.129	10	3.2
210.296	61.214	39.7	3.4
219.013	60.158	6.8	3
210.657	61.512	37.6	4
219.011	60.28	6	3.2
212.422	60.968	31.7	4
210.716	63.67	119.5	3.5
213.037	61.614	27	3.1
210.93	63.837	119.5	3.3
217.278	58.361	10	3
210.398	61.654	39.4	3.5
216.878	56.961	10	3.5
211.939	61.228	33.2	3.8
217.012	57.644	10	3.4
210.777	62.101	43.4	3
213.864	61.248	21.1	3.1
210.013	61.545	41.2	3.2
218.707	59.939	8	3.3
216.419	58.589	10	3.6
212.884	63.256	63.7	3
210.779	61.515	39.8	3
210.219	61.086	44.2	3.2
217.042	60.472	5.2	3.1
213.055	61.279	20	3.6
212.427	61.044	29.5	3.8
210.555	63.01	33	3
210.668	62.24	52	3.1
215.774	63.317	0	3.3
215.771	63.318	0.9	3.3
214.663	63.336	6.2	3.4
210.158	61.746	40.5	3.3
212.555	61.305	23.5	3.2
212.517	60.884	21.3	3
212.717	61.017	20.9	3.5
211.326	62.602	48.3	3
210.166	63.592	10.3	3.1
210.785	64.913	21.4	3.4
213.898	61.022	25.6	3
211.018	62.524	49	3.1
210.279	62.13	44.5	3
216.902	64.698	21.9	4.2
219.363	60.073	7.4	3.2
210.438	60.563	33.9	3.4
212.338	60.085	20.1	4.6
210.695	62.524	61.6	3.2
212.824	58.653	10	3
210.809	60.895	36.4	4.9
213.831	57.405	10	3.2
211.174	62.299	37.2	3.1
210.184	63.973	33	3.3
210.715	64.343	16	3.3
210.767	60.929	31.5	3.1
218.577	61.549	0	3.3
218.76	61.539	0	4.5
218.577	61.555	0	3.4
210.435	60.472	33.1	3
217.269	58.45	10	3.4
218.6	61.454	0	3.1
212.355	60.112	17.4	3.4
218.664	61.495	0	3.3
211.989	62.186	13.1	3
210.814	64.734	8.4	3.1
212.319	61.314	34.2	4.7
212.895	61.347	13.6	3.9
212.201	62.051	33	4.1
216.773	60.435	15.1	3
211.849	62.876	63.1	3.1
210.409	62.165	49.5	3.3
213.57	60.74	20.9	3.5
210.64	62.18	46.6	3.4
212.146	61.928	32.9	4.4
210.115	62.019	47.9	4.1
210.131	61.791	33	3.1
210.186	62.125	55.3	4.1
210.925	62.815	62.5	3.1
217.344	58.236	10	3.1
214.856	61.159	10	3.5
210.032	62.081	48	4.2
212.395	63.517	12.8	3.1
210.11	62.675	15.9	3
210.615	62.159	45.1	3.8
211.31	63.034	76.1	3.5
210.25	63.268	15.9	3.1
213.388	61.496	16.6	3.7
212.757	62.103	38.6	3.8
212.772	62.086	36.5	3.2
215.79	61.785	33	4.5
212.648	61.179	30.6	4.3
210.038	64.216	26.5	3.7
214.144	56.959	10	3.3
210.866	64.789	19.5	3.4
211.342	62.681	54	3.3
213.606	61.574	31.7	3
210.904	61.966	42	3.2
214.389	59.259	33	4.1
213.332	61.694	26.5	3.6
216.978	57.85	10	3.1
210.646	62.609	57.9	3.1
210.037	62.497	60.2	3.1
210.426	59.891	7	3.5
210.264	61.314	42.8	3.8
210.533	61.259	42.6	3.1
211.569	62.436	37.5	3.4
219.937	59.949	0	3.2
219.005	60.15	0	3
212.861	60.395	18.9	3.4
213.655	61.611	36.6	3.5
217.03	58.107	10	3.5
211.745	61.495	11.6	4.7
218.555	60.044	8.8	3.3
216.891	58.364	10	3.6
211.02	62.087	41.5	3.1
212.33	61.495	37	3.1
211.111	60.552	20.5	3.2
210.047	61.482	32.7	3.2
212.252	62.112	35.6	3.3
212.087	62.934	65.3	3.1
217.544	62.198	1	4
217.616	62.166	10.6	3.1
219.783	60.918	5.8	3.2
213.056	61.332	46.6	4.6
210.097	60.852	36.9	3.3
210.665	60.261	34.5	3.3
211.507	60.927	18.4	4
210.419	61.825	29.9	3.1
212.462	60.684	14.7	3.6
211.782	62.099	40.5	3.4
211.555	64.251	1.6	3.2
213.152	61.338	14.2	4
210.702	64.527	15.1	3
215.977	59.445	10	3.2
219.319	60.059	7.3	3
219.775	60.054	6.8	4.1
213.391	61.497	19.8	3.1
210.104	61.024	37.6	3.1
210.158	61.513	58.1	4.4
211.54	62.174	34.5	3.8
218.884	60.159	13	3.3
219.025	60.133	7.7	4.3
219.068	60.249	10	4.7
219.042	60.14	6.7	4
210.011	61.43	37.1	3.4
210.963	62.022	38.3	3.1
211.27	62.627	54.9	4.2
214.079	61.492	37.4	3.6
210.162	61.731	48.8	3
213.301	60.819	15.1	3.6
210.985	62.756	63.7	3
217.57	58.535	10	3.8
212.6	61.967	36.9	3.5
211.512	62.028	38.1	3
213.807	61.408	31.6	3.7
214.798	59.517	10	3.6
212.197	60.945	7.4	3
211.198	64.831	0	3
212.469	64.847	14.5	3.4
210.172	62.019	46.1	3.5
211.083	62.781	67.7	3.2
212.722	63.514	9.8	3.3
212.751	63.509	10.2	3.7
212.628	60.161	3.6	3.7
210.593	63.132	17.1	3.2
210.902	62.508	56.4	3.4
211.908	61.044	10	3
217.199	58.499	10	4.2
219.114	60.301	2	3.2
210.443	61.111	34.1	3.6
211.256	62.779	58.8	3.1
212.628	60.866	34.4	4
213.406	61.499	16.4	3.4
212.139	60.126	14.2	3.3
217.99	59.92	6.4	3.1
218.72	61.53	0	3.4
210.79	62.7	65.8	3.1
217.18	58.298	10	3
213.26	60.81	15	3.2
211.31	59.73	14.4	3
215.733	63.089	5.1	3
213.689	61.568	39.7	3.4
214.439	64.407	8.5	3
216.783	58.155	10	3.4
218.799	61.541	0	3.8
212.546	61.009	22.6	3
210.421	62.417	62.3	3.3
211.825	62.934	60.3	3
214.779	63.361	3.1	3.8
219.7	61.23	0	3.4
213.454	61.698	19.8	3.2
213.493	61.687	17	3.2
212.02	60.23	18.1	3.3
214.696	63.315	5.7	3.2
213.897	57.934	10	3
219.388	60.028	2.3	3.2
211.151	62.269	3.9	3
210.112	62.288	55.9	3.7
210.046	62.007	40.3	3.2
210.399	62.262	51.1	3.1
218.554	62.267	0	3.6
210.464	62.944	81.6	3.5
210.028	61.98	42.5	3.1
212.286	63.377	12.3	3.2
210.28	60.99	35.6	3.3
216.507	57.348	10	3.3
210.059	61.852	40.1	3.3
212.691	60.962	21.7	3.7
210.172	61.525	37.8	3.5
210.233	61.714	35.9	3.4
213.131	61.297	33	3.2
210.15	61.874	39.8	3
211.998	61.598	26.8	3
210.181	62.456	59.5	3.1
210.829	64.933	14	3.2
218.972	60.229	1.3	3.6
212.738	60.703	20.1	3.2
210.021	61.1	41.9	3
214.399	63.358	0	3.4
210.3	60.916	37.5	3
214.638	63.324	6.9	3.3
210.224	62.012	42.4	4.1
210.203	62.009	35.2	3.1
212.192	61.643	28.7	3.4
217.044	58.793	10	3.9
212.216	63.968	0	3.3
213.103	61.305	14.8	3.7
213.082	60.855	31.4	3.5
210.457	62.423	59.2	3.8
210.7	62.322	48.6	3.5
210.998	61.803	13	3.4
213.437	61.476	33	3
212.722	64.116	16	3.6
216.956	57.7	9.6	3.2
213.491	61.54	19.7	3.1
210.34	61.698	33	3.3
213.356	61.197	32.6	3
210.429	62.745	3	3.4
213.804	61.193	12.9	3.8
211.044	62.794	55.4	4.2
211.643	59.966	42.1	3.3
212.007	62.079	37.3	4
211.946	61.602	18.7	3
210.931	64.989	16.5	3.4
210.944	64.989	0	3.2
219.099	60.204	0	3.7
219.007	60.194	14	4.2
210.471	60.76	39.2	3
213.319	59.828	31.5	3.7
211.135	60.582	0	3.1
212.809	61.515	15.8	3
210.131	62.584	47	3.1
213.703	61.57	23.6	4
212.138	59.938	33	4.6
213.518	61.449	36.3	3.7
210.952	62.985	20.2	4.8
213.067	64.417	13	3.6
210.96	64.92	21.8	3.8
210.22	62.5	46.7	3.2
210.875	61.871	10	3
210.967	64.867	23	4.1
211.12	62.34	20.7	3.1
222.49	57.98	5	3.4
222.31	57.94	5	3.9
221.08	59.36	5	3.1
220.12	58.25	10	3.1
220.913	61.483	5	3.2
221.58	60.953	5	5.1
220.977	59.93	0	3.4
222.323	58.513	5.9	3.2
220.472	60.166	1.1	3.6
222.154	59.168	10	3.4
221.102	59.268	0	3.2
220.857	57.884	10	3
221.12	59.649	2	3.5
220.984	59.575	3.5	3.2
222.863	57.552	10	3.4
220.466	60.827	15.3	3.3
222.45	57.795	10	3.1
220.792	59.965	0	3.7
220.183	60.086	1.6	3.9
220.912	59.763	7.3	3.1
220.403	60.246	0	3.1
222.397	59.116	0	3.4
220.67	61.147	0	3
220.38	60.24	10	3
220.4	60.26	5	3.1
222.4	58.857	10	4.4
220.778	61.205	10	3.4
221.47	58.34	10	4.3
220.58	61.29	10	3.9
220.987	59.649	0	3.3
222.14	59.22	10	4.3
221.461	60.946	10	3
220.309	59.813	0.1	3.9
220.432	59.653	0	4
220.843	59.696	25	3.7
220.676	60.169	0	3.7
220.702	60.181	0	4.1
165.912	55.661	33	4
165.586	55.693	33	4.1
165.5	55.206	33	4.1
165.432	55.191	33	4.3
166.023	56.318	33	4.3
166.58	55.645	32.9	4.7
166.27	55.565	33	4.7
165.833	56.316	33	3.7
166.958	55.414	33	4
165.401	55.23	65.2	4.1
166.529	55.445	33	4.4
165.555	55.161	33	4.1
165.49	55.032	33	3.9
166.063	55.693	33	3.8
166.217	55.473	33	4.3
165.336	55.116	33	5.1
165.381	55.149	33	5
165.306	55.035	33	4.3
165.391	55.135	33	5.1
165.365	55.144	33	4
165.475	55.143	33	5.6
165.362	55.119	33	4.2
165.469	55.058	33	4.6
165.474	55.243	33	5.1
165.588	55.061	33	4.2
165.661	55.05	33	4.5
165.536	55.025	33	4.7
165.55	55.094	33	4.4
165.582	55.045	33	4.5
165.488	55.111	33	4.4
165.362	55.157	33	4
165.484	55.041	57.5	4.6
165.532	55.035	33	4.1
165.357	55.308	33	4.2
166.293	55.643	33	4.3
205.693	65.837	10	3.1
208.011	65.579	14.3	3.5
206.796	66.823	0	4
207.93	65.701	8.3	3.3
209.633	65.152	15	3.4
208.875	65.809	9.2	4.4
208.851	65.713	31.8	3
205.515	65.619	10	3.4
209.628	65.315	13.2	4
208.374	66.081	20	3.6
209.817	65.007	21	3
209.093	65.97	59.2	3.9
207.463	65.225	0	3.4
206.228	65.826	10	3
205.81	65.827	10	3
209.92	65.46	13.2	3.4
206.78	66.312	0	3.9
207.018	65.181	10	3.2
209.781	65.892	10	3.1
209.406	65.067	10	3.2
207.69	65.719	33	3
212.75	65.895	25.1	3.2
212.424	65.949	31.8	3
211.553	65.133	0	3.6
211.45	65.135	11.9	4.4
211.458	65.136	12	3.7
211.485	65.165	14.5	3.3
211.462	65.132	12.1	3.5
211.432	65.138	0	3.2
211.451	65.13	13	3.6
211.378	65.121	15.2	3.1
211.419	65.182	4.8	3.2
211.458	65.119	11.8	3.5
211.445	65.173	11.8	3.7
211.437	65.1	12.4	3.4
211.416	65.161	12.6	3.6
211.477	65.122	13.9	3.3
211.41	65.157	12.3	3.1
211.434	65.205	10.7	3.2
211.447	65.131	13	3.5
211.477	65.16	10.8	3.1
211.452	65.121	11.9	3.6
211.478	65.165	10.6	3.1
211.433	65.137	11.1	3.7
211.449	65.129	12.3	3.2
211.429	65.177	12.2	3.6
211.438	65.192	11.6	3.5
211.426	65.14	11.8	3.5
211.391	65.107	17.2	4
211.435	65.137	14.1	4.2
211.465	65.166	10.8	4.2
211.462	65.154	0	3.5
211.442	65.14	11.6	3.4
211.454	65.155	12.2	3.2
211.412	65.126	15.2	3.4
211.45	65.142	12.2	3.2
211.451	65.148	11.8	3.2
211.428	65.181	10.4	3.2
211.424	65.121	8.4	3.1
211.411	65.147	11.9	3.5
211.437	65.191	10.3	4.4
211.187	66.452	10	3.7
211.16	66.372	24.9	3
211.437	65.137	13.1	4.1
211.378	65.171	13.2	3.1
211.449	65.141	14.5	3
211.379	65.16	17.2	3.3
213.49	67.45	20	3.9
211.382	65.188	19.3	3.1
211.342	65.139	7	3.1
215.722	67.058	20	3
213.125	65.004	19.2	3.3
211.551	65.161	19.9	3
210.729	65.905	33.6	3.1
211.204	65.183	18.4	3.2
211.463	65.15	15.8	3.3
211.178	65.207	15.8	3.3
211.539	65.185	14.9	3.2
211.277	65.206	15.6	3.4
213.948	65.024	3.2	3.8
211.18	65.03	22	3.1
211.38	65.194	16.4	3.4
215.322	65.407	1.7	3.5
211.5	65.229	11.8	3.1
212.652	65.003	16.2	3.1
210.829	67.571	35.9	3.3
210.55	65.186	37	3.3
212.724	66.952	9	3.3
215.36	67.4	41.8	4.7
215.37	65.57	10.7	4.1
215.183	67.199	21.2	3.6
211.429	65.162	17.6	3
213.902	67.417	40.8	3.3
213.1	65.014	14.6	3.1
211.497	66.168	29.8	3.5
214.828	65.641	14.4	3.1
216.067	65.729	9.9	3.8
210.129	65.204	10.5	3.3
212.209	66.283	20	3.4
211.32	65.17	5.2	3.1
211.38	65.52	9.2	3.5
211.29	67.688	16.7	3.3
217.629	66.337	22.5	4.4
211.028	66.145	33.7	3.9
212.131	67.439	10	3.5
216.732	67.239	9.9	3.8
217.7	67.484	10	4.1
210.937	65.193	11	3.5
211.592	66.099	31.3	3.5
216.037	65.536	10	4.5
214.904	65.661	13.7	4.2
211.883	65.462	14.5	3.4
210.946	65.246	16.3	3.1
210.74	66.345	29.4	3.6
211.36	65.114	18.4	3.4
217	67.16	0	3.6
213.067	66.818	9.7	3.3
210.048	65.809	0.9	3.5
214.69	65.707	11.3	3.2
213.838	67.533	35.3	3
210.954	65.184	16.6	3.1
216.9	65.51	6.4	3.3
211.798	65.612	14	3.1
211.227	65.01	21.4	3.1
213.631	61.613	13.6	3.8
217.323	58.133	11.5	3.2
214.273	63.373	4	3
211.209	63.505	12.1	3.2
212.023	63.552	4.4	3
211.078	59.937	9.2	3.2
217.311	58.128	12.4	3.4
210.243	62.601	12	3
210.497	61.899	38.3	3.2
214.817	63.356	1.5	3
216.008	62.999	3.7	3.4
214.093	63.467	11.5	3.2
215.876	63.016	13.1	4.3
211.174	63.508	8.1	3
216.683	61.149	13.6	3.2
210.694	62.518	55.2	3.1
212.642	63.363	4.8	3.7
210.138	61.304	36.1	3.9
210.182	61.33	35.6	3.3
216.754	63.179	0.9	3.1
210.166	61.314	37.4	4.2
212.35	63.596	1.6	3.6
212.49	63.454	5.2	3.8
212.349	63.587	4.5	3.5
218.285	59.974	5.5	3.3
212.598	61.183	12.2	3.3
211.93	58.816	25	3.2
217.613	62.259	4.6	3
210.327	61.585	32.6	3.5
211.236	62.281	26.1	3.1
210.874	63.785	111.5	3.6
210.147	61.323	33.7	3.6
211.986	61.892	25.8	3.5
210.315	63.209	95.9	3.9
213.3	63.531	1	3
213.04	63.318	9.7	3
211.461	62.65	35.7	3.4
213.471	61.447	17.3	4.5
212.484	63.604	6	4.3
210.195	63.087	86.9	3.3
216.812	57.25	65.6	3
210.675	60.757	19.4	4.8
215.535	63.151	1	3.6
210.213	63.619	125.6	3.1
217.342	60.548	1	3.7
212.489	60.476	11.2	3
211.905	62.295	0.8	3.6
210.929	59.985	17.4	3.4
214.069	57.077	10	4.1
219.134	60.244	3.3	4
210.466	63.288	100.2	3.5
214.029	57.058	25.3	3.1
210.104	61.518	37.1	3.1
212.019	62.148	17.6	3.6
212.598	63.58	13.4	4.1
212.942	63.517	1	3.1
213.14	63.526	1	3.2
212.095	62.273	1.4	3.7
210.384	61.365	29.2	3.1
212.01	62.125	27.8	3.1
211.525	62.316	34.5	3
211.501	61.188	14.8	4.2
219.176	60.096	1	3
210.221	62.882	81.4	3
212.61	63.605	4.3	3.7
212.712	60.414	38.9	4.4
217.191	57.638	10	4
213.147	61.299	19	3.2
210.622	62.685	71.3	3.1
210.445	64.025	141.1	4.5
210.133	61.942	44.5	3
210.112	63.131	6.9	4.2
212.684	63.592	6	3
216.224	62.935	1	3.1
210.591	60.817	34.1	4
218.445	61.461	1	3.9
218.421	61.414	1	3.6
210.867	61.86	1	3.3
211.198	62.675	55.4	4
212.215	61.944	9.2	3.8
211.964	63.543	8.6	3.1
211.801	63.16	75.6	3.7
212.441	63.489	10.1	3
211.178	60.085	13.3	3
216.596	62.796	2.5	3.7
216.378	63.097	1.8	3.4
213.856	61.571	38.1	3.1
216.391	63.094	1.2	3.5
216.391	63.077	1	3.8
212.197	62.522	46.6	3.5
213.474	61.686	10.4	3.9
210.58	64.503	21	3.5
215.879	60.925	10	3.9
216.501	63.082	10.6	3
212.592	60.477	4.5	3.5
212.094	62.15	25.2	3.3
212.127	63.547	3	3.7
210.553	62.845	75.9	3.4
212.584	63.646	7.4	3.1
210.493	61.404	36.8	3.2
218.667	60.3	0	3.7
212.578	61.209	20	3.2
214.773	63.268	3.9	4.4
211.15	61.793	9.5	3.3
210.734	63.152	88.8	3.6
213.831	61.221	19.8	3.4
217.636	57.998	65.8	3.7
210.828	62.748	67.3	3.5
212.102	63.536	2.9	3.2
211.533	63.816	102.9	3.8
213.629	61.259	40	3.7
211.541	59.78	19.2	3.4
210.635	63.224	85.3	3.3
211.754	62.378	22.1	3.3
210.319	62.745	76.9	4.3
214.477	59.097	17.6	3.8
218.888	60.201	1	3.3
210.85	61.864	0.7	3.2
212.506	63.449	8	4.8
212.484	63.438	1.2	3
211.326	62.849	75	3.2
213.131	61.391	8.2	3.1
212.882	61.764	26.5	3.2
210.25	61.498	45.8	4.3
210.323	60.777	29	3.2
210.223	61.511	43.2	4
210.217	61.499	45.8	4.2
211.78	62.166	16.9	3.1
210.483	61.956	58.9	3
212.712	63.5	1.7	3.1
219.63	61.58	5	3.7
212.497	63.452	5.3	3.1
212.482	60.605	9.9	4.1
212.26	61.044	10.3	3.5
210.094	58.453	28.6	3
210.75	62.169	43.9	3.5
211.062	55.885	7.2	3.1
211.956	62.325	31.7	3.4
214.856	61.187	21.5	3.4
210.931	62.939	0.4	3.7
212.966	63.52	1	3.1
211.674	63.445	7.1	3.3
212.201	63.526	1	3.1
216.36	62.827	1	3.1
210.095	60.751	35	3
214.504	62.177	19.6	3.2
210.405	61.717	29.6	3
213.165	61.26	12.6	3
212.214	60.366	22.7	3.3
212.435	63.647	10	3
214.55	62.15	22	4.1
210.544	62.083	41.7	3
210.483	62.2	63	4
216.6	63.15	5	3.9
210.321	62.831	80.3	3.3
211.888	56.436	24.9	3.3
212.934	59.998	10	3.1
213.37	63.786	16.5	3.9
218.745	58.656	19.9	3.6
211.113	61.915	11.1	3
216.619	63.09	24.7	3.2
210.6	60.817	32	3.1
210.752	62.925	72.4	3.7
212.099	60.578	14.8	3.7
218.27	59.966	3.7	3.1
211.44	62.34	37.3	3.1
211.872	62.924	63	3.1
210.71	62.55	58.4	3.9
214.351	62.217	18.3	3.1
214.56	62.166	15.8	3.2
214.214	59.633	15	3.2
211.682	63.464	11.7	3.3
210.453	63.405	107.2	3.2
211.636	62.143	25.3	3.5
211.55	59.975	17.5	3.1
212.844	61.903	32.5	3.4
212.52	61.392	10	3.2
213.468	61.74	17.5	3.2
211.064	61.094	6.9	3.2
210.478	63.255	7.6	4.7
214.198	59.556	8.8	3.7
210.052	61.749	38.8	3.5
217.01	57.08	12	3
213.673	61.494	2.4	3.3
212.785	60.992	20.9	3.2
216.537	63.078	1	3.1
212.229	61.386	0.1	3.1
211.68	62.886	67.1	3.1
210.181	61.074	39	3
211.494	63.177	69.4	3.1
211.965	62.811	54.8	3.5
212.571	60.485	11	3.6
210.936	63.502	4.9	4.2
212.26	60.34	11.9	3
210.479	61.832	36.4	3
218.537	59.894	5.9	3.2
210.619	61.241	24.7	3
213.324	63.525	1.8	3
215.197	63.436	8.3	3.1
210.055	63.922	11.3	3.2
210.303	62.132	47.1	3.6
212.155	63.523	10.3	3.1
212.696	63.548	8.4	3.2
216.853	58.182	15	3.3
212.517	62.35	43	3.9
212.591	63.621	11.1	3.4
212.589	63.613	9.4	3.1
214.166	58.096	12.5	3.7
210.179	61.539	58.1	3.2
213.492	61.584	14.2	4.4
213.946	59.199	13.7	3.7
214.787	61.206	10.5	3
210.799	62.317	12.5	3.3
212.014	58.146	8.6	4.3
212.129	61.539	15.3	3.4
213.911	59.152	14	3.3
219.592	59.988	1	3.5
217.255	60.658	8.4	3.1
215.461	56.485	10	3.2
212.223	61.553	1.5	3.2
210.522	60.63	42.2	3
212.081	63.594	15	3.2
215.745	63.26	5	3.7
210.92	56.843	20	3.1
210.322	61.156	23.2	5
210.322	61.158	26	3.3
215.007	63.376	10	3.1
210.03	63.549	134.2	3.4
214.538	62.122	6.1	3.8
210.389	61.576	38	3.1
214.622	63.332	8.3	3.3
212.497	60.667	19.2	3.7
217.554	60.074	0.9	3.7
215.609	63.128	9.7	3
212.683	60.9	15	4
216.451	63.113	5	4.1
216.416	63.102	7.5	3.3
210.635	62.18	39.1	3.2
212.914	60.163	13.6	3.4
212.695	60.917	14.8	3
219.834	61.245	1	3.6
211.733	61.989	13.1	3.1
210.339	60.941	42.9	3.2
210.077	61.613	39.1	4.5
212.311	64.222	17.6	3.9
212.089	56.546	10	3.8
211.326	62.272	7.3	3.5
213.75	61.183	25	4
216.338	60.384	2.8	4.5
210.016	62.026	46	3.9
217.119	57.472	12.4	3.4
211.163	62.674	75.9	3.3
218.516	60.011	2.9	3.7
213.418	61.498	14.5	3
213.172	61.257	14.7	3.8
210.403	62.307	50.6	3
218.37	60.07	7.1	3.3
216.971	57.736	13.7	3
212.27	64.651	17.7	3.1
212.385	64.629	16.7	3.1
212.127	62.06	18.5	3.1
212.113	62.455	40.1	3.9
212.857	63.951	2.9	3.1
219.718	62.318	20	3.6
213.125	60.604	16.3	3.3
210.486	60.831	27.1	4.1
211.074	62.814	65.9	3.2
211.622	61.622	10	3
210.393	62.779	75.3	3.6
219.213	61.496	5	3.1
212.399	63.458	3.4	3.4
210.378	63.187	98.7	3.5
212.412	62.337	40.1	3.1
211.821	61.88	22.3	3.4
218.733	61.377	1	3.5
214.79	63.329	5.7	3.3
218.245	62.182	5	3.2
211.82	61.5	14.9	3
218.196	62.183	1	3.2
219.28	61.46	5	3.1
210.634	64.653	20	3.9
210.025	61.801	42.9	3.5
214.836	63.292	5.7	3
211.473	62.257	14.6	3.3
213.305	63.527	0.5	3.1
213.444	61.517	15	3.8
215.846	58.687	7	3.5
216.256	62.89	7.2	3.5
213.47	60.685	16.7	3
211.715	64.856	17.5	3.4
212.632	63.559	3.1	3.3
210.3	63.268	94.9	3.2
215.012	59.275	9.9	3.2
219.956	61.388	5	3.8
216.554	58.636	12.2	3
212.365	62.368	10	3
210.043	61.934	33.8	3.3
213.547	61.437	35.6	3
210.528	61.665	30.8	3.2
210.141	62.459	61.6	3
210.638	62.703	63.5	3
212.114	60.609	5.2	3
210.716	62.121	38.9	3.2
211.92	62.168	15	3.5
210.01	61.504	58.9	3.6
210.955	61.811	34.8	3.5
211.692	62.863	61.9	3.5
213.051	61.302	28.3	3
212.574	63.622	7.2	3.3
212.188	59.598	3.4	3.3
211.357	62.125	25.4	3.7
215.472	63.13	6.3	3.3
210.241	63.103	89.3	3.8
212.509	64.252	13.7	4.8
213.004	63.349	1	3.3
210.605	56.361	12	3
212.686	60.474	9.7	3.4
213.707	59.542	15.5	3.6
218.69	60.15	14.5	3.4
212.676	62.296	22.5	3.4
212.03	62.784	50.8	3.4
211.265	62.805	71.6	3.3
214.436	57.296	8	3
215.043	59.176	6.7	4.8
212.674	60.403	2	3.2
210.023	61.591	40.3	3.2
212.841	60.312	13.7	3.1
216.02	59.449	1.1	3.2
215.695	63.141	1	3.5
213.503	61.381	22.4	3.2
210.02	61.411	53.9	3.2
211.179	62.066	30.3	3.3
213.429	61.479	30	3.3
212.606	59.949	15	3.9
211.061	61.825	8.3	3.1
212.436	63.612	8.2	3.3
219.533	60.243	10	3
214.544	63.325	1.8	3.4
212.671	63.389	60.4	3.1
213.103	61.292	33.1	3.8
213.11	61.3	29.1	4.4
216.812	60.428	11.1	3.1
213.45	61.229	15.5	3.3
212.618	59.953	14.1	3
212.678	63.581	7.4	4.1
211.199	62.218	28.1	3.3
210.614	63.015	76.2	3
210.278	62.132	42.9	3.2
213.968	57.575	1.7	4
217.165	60.654	3.3	3.7
217.35	57.975	10	3.6
213.151	61.088	25.4	4.1
210.245	61.552	41.9	3.2
211.351	63.918	118.1	4.4
214.024	63.5	2.4	3.1
210.33	63.216	98.4	4
210.287	62.931	74.7	3
219.943	60.194	1	3.7
213.302	61.468	18	3.3
218.227	62.173	21.7	3.4
218.765	59.975	14.9	3.7
213.348	61.519	31.4	3.1
214.206	61.093	19.1	3.2
219.505	60.745	0	3.6
216.917	58.329	35	3.8
210.296	63.179	97.5	3
218.488	60.213	10	3.1
211.43	62.284	30.9	4.4
214.336	62.145	0.9	3
212.167	62.051	20	3.7
210.92	62.474	43.1	3
212.153	61.946	25.3	3.3
212.719	63.645	4.4	3.2
214.367	62.145	17.6	3.2
212.458	61.675	25.6	3.7
210.326	63.291	98.9	3.5
212.379	63.556	5	3.2
210.992	57.119	6.9	3.2
213.895	61.375	30.8	4.5
217.132	59.057	13.2	3.5
213.066	61.785	25.7	3.1
212.684	63.567	3	3.5
211.396	62.433	14.9	3
216.45	63.085	10	3.3
212.611	62.154	11.8	3
212.476	63.581	14.7	3.1
210.782	62.087	28.6	3.2
210.405	60.904	40.2	3.4
214.935	62.188	0.2	3.1
212.592	59.961	11.8	4
210.536	62.697	3.9	3.7
211.073	63.33	82.9	3.4
212.417	60.599	7.9	3
210.961	64.932	19.4	3.4
210.983	64.809	19.9	3.2
212.426	63.447	11.7	3.4
217.237	58.627	27.7	3.1
210.814	62.153	27.9	3.2
210.595	63.689	123.1	4.8
210.686	61.95	38	3.1
210.241	60.962	29	3.3
211.168	61.363	14.8	3.4
211.931	61.465	12.6	3.1
212.275	63.58	10.6	3
212.291	63.54	14.5	3.1
217.228	57.411	12.1	3
216.304	62.857	11.6	3.2
213.331	63.536	4.1	4.2
211.798	60.424	16	3.7
214.591	56.71	13.4	3.2
214.909	63.291	4.4	3.3
211.954	56.892	9.7	3
212.463	61.714	5.9	3
211.837	62.931	67.8	3.5
210.062	61.579	29.6	3.8
210.69	60.963	29	3.7
214.831	63.326	6.1	4
215.923	63.354	5.6	3.5
218.221	58.903	10	3.7
212.347	61.568	10	3.3
210.203	61.181	37.7	3.1
216.246	62.8	6.1	3
210.468	63.657	116.3	3.1
214.412	62.195	13.4	3
214.901	63.23	6.6	4.3
212.159	60.372	16.3	3.1
210.053	61.556	38.1	4.2
214.425	62.18	15.2	3
214.762	61.76	39.8	3.1
213.364	61.736	16.9	3.3
219.35	61.6	10	3.3
210.002	61.547	34.5	3.3
210.116	61.224	37.4	3.1
213.67	61.618	17.8	3.7
210.023	63.049	88.5	3.4
210.215	61.648	32.2	3.6
218.688	61.685	1	3.8
210.279	63.154	86.6	3.6
211.762	62.251	29.4	3.3
213.268	64.428	11.5	3
211.23	64.875	7.8	3.5
210.651	63.214	91.7	3.9
210.203	61.16	27.3	3
214.829	63.307	6	3.8
217.223	58.156	10	4
219.171	61.448	15	3.1
210.232	61.474	26.7	3.3
212.902	60.167	7.2	3.5
211.471	62.859	66.8	3
214.243	61.35	23.9	3.1
213.012	61.267	20	3.1
216.01	62.895	7.2	3.2
213.463	61.542	13.8	3
214.884	63.351	3.8	3.2
210.138	62.478	59.3	3
211.35	62.656	63.5	3.1
214.848	59.698	0.2	4.8
210.511	61.939	29	3.2
210.844	62.735	65.6	3.4
216.855	60.471	4.1	3.2
210.611	63.115	83.3	3.2
211.658	63.538	13.9	3.7
211.686	63.957	114.6	3.6
211.536	59.829	19.9	3.1
210.227	61.669	30.8	3.1
213.211	61.331	27.8	3
218.772	60.331	15	3.1
211.209	63.832	112.9	3.1
210.469	63.622	125.9	4.4
211.585	63.253	78.8	4.3
212.263	61.977	36.5	3.2
213.775	61.253	16.5	3.9
210.468	62.405	50.7	3.4
211.728	62.9	67.8	3.1
212.336	63.553	87.5	3.1
213.186	61.378	14.1	3.6
210.042	61.55	41.2	3.6
215.874	63.03	7.1	3
210.537	63.657	9.7	3.6
219	61.89	1	3.4
211.489	62.353	24	3
213.376	61.49	15.3	3.4
212.663	63.549	8.1	3.6
213.483	61.508	9.3	3
219.036	60.225	15	3.1
210.099	60.987	35	3
210.933	63.838	112.4	3
210.21	63.361	111.4	3
213.197	61.395	13.6	3.3
215.074	63.363	1.1	3
212.239	64.641	18.6	3.5
212.591	63.444	4.1	3.5
210.402	62.12	43	4.1
218.919	61.515	11.7	3.3
214.888	63.36	3.9	3.1
212.268	61.621	19.5	3.7
219.844	59.869	1	3
211.904	62.541	44.7	3.2
215.566	63.166	6.3	3.1
211.284	60.616	40.5	3.1
210.571	62.157	39.7	4.6
214.457	63.285	9.1	3.1
219.489	58.674	24.7	3.5
210.028	61.579	35.4	3.6
213.12	63.524	3.1	3.1
213.573	61.573	33.1	4.1
212.05	64.494	3.6	3.1
213.121	63.53	4.1	3.8
211.378	62.916	67.4	3.5
213.044	60.922	23.6	3.2
210.329	61.747	3	3.3
218.634	61.843	5.8	3.7
210.156	57.165	7.1	3.1
212.066	61.958	26.2	3.6
212.073	61.941	29	3.3
213.249	61.26	20.4	3.8
210.57	61.941	28.6	3.3
218.356	59.908	7.3	3.6
219.504	61.586	5	3
210.548	59.208	15.3	3.2
213.3	61.469	19.7	3
211.299	63.893	14.4	3.3
210.079	61.48	45.4	3.3
210.204	60.21	56.5	3.1
212.966	61.618	20.9	3.1
210.429	61.05	26.4	3
210.08	61.617	46.1	3.7
212.083	61.956	20	3.1
213.404	60.269	25.7	3.6
214.353	62.2	20.7	3.1
211.632	63.017	67.4	3.1
210.887	64.999	18.4	3.9
212.835	60.628	10.1	3
210.047	61.526	41.7	3
210.33	62.881	80.5	3.1
217.05	57.58	12	3.5
210.423	63.111	94.7	4.7
212.326	63.596	9.1	3
211.474	61.98	31.3	3.4
210.512	62.779	75.5	3.3
212.255	63.557	7.3	3.5
212.436	61.406	7.2	3.2
213.246	60.945	13.8	3.3
217.176	61.875	0.4	3.6
213.371	61.624	19.1	3
211.165	63.569	13.6	3.1
217.163	61.878	5	3.6
211.525	63.043	80.3	3.6
217.198	61.883	0.4	3.3
211.11	62.894	63.8	3
217.221	57.303	13.5	3
216.263	62.897	11.1	3.6
214.87	63.327	0.4	3
212.183	61.965	29.3	3.6
210.107	63.673	137.5	3
212.818	61.889	39.8	3.2
210.503	62.143	43.6	3
212.15	61.937	35.1	3
212.105	60.562	3.9	3
210.292	61.296	35	3.1
210.818	62.106	28.5	3.2
213.417	61.333	20.9	3.2
218.463	62.238	1.6	3.1
214.825	63.328	9.6	3.2
212.632	63.545	6.6	3.2
210.282	63.003	82.9	3
210.855	61.181	22.7	3.8
213.207	61.917	23.5	3.3
210.19	61.435	27.4	3
210.648	62.233	43.6	3.8
210.247	62.911	78.3	3.4
212.807	63.326	6.8	3
211.977	64.791	9.6	3.8
211.099	56.495	12.7	3
210.493	62.37	54.9	3.5
211.983	64.78	16.6	3.5
211.975	64.795	14.9	3.1
211.957	64.788	14	3.2
211.975	64.786	14.9	4.3
211.949	64.799	13.5	3
212.583	62.25	54.6	3.4
210.741	61.253	31.5	3
210.059	61.55	46.1	3.3
210.049	61.548	46.2	3.4
216.306	62.874	7.6	3.1
210.129	63.199	98	3.3
212.652	63.557	2.5	3
212.581	61.358	23	4.3
210.512	64.613	22.7	3.7
210.035	61.731	37.8	4
210.524	64.613	23	3
210.406	61.691	33	3.8
213.763	61.562	33.1	3.4
212.096	61.644	23.1	3.7
212.427	63.044	4.5	3.1
211.841	62.881	78.9	3.6
210.485	63.659	119.1	3
211.728	63.477	9.7	3.1
212.691	63.565	5.7	3.1
210.358	62.166	45.8	3
214.513	63.352	5.2	3.2
217.104	56.779	20.6	3.3
219.274	64.754	5	3.3
219.311	64.696	0.6	3
214.216	57.067	10.2	3.3
210.266	61.049	50.9	3.8
210.103	63.653	144.1	4.1
210.445	61.802	4.5	3
211.894	64.27	10.4	3.1
218.561	59.998	0.8	3
213.711	63.623	11.5	3
211.394	62.219	7.5	3
217.317	59.773	9.7	3.2
210.15	63.616	142	3.5
213.528	61.502	20.7	3
212.091	61.951	35	3
214.759	63.32	6.1	3.1
213.12	61.28	21.8	3.5
212.958	63.356	2.3	3.4
216.511	63.203	5.1	3.4
212.563	63.613	5.9	3
210.057	56.12	12.2	3.1
210.136	61.557	53.9	3
210.492	62.066	31.6	3
211.539	62.023	13.9	3.2
220.957	59.722	9.1	3.3
220.64	60.121	7.3	3
220.612	60.095	13.1	3.8
220.647	60.197	1	4.2
220.607	60.091	1	3.1
222.013	58.708	9.4	3
221.062	59.637	3.5	4
220.972	59.456	0.5	3
220.1	64.47	5	3.2
220.741	59.462	1	3.1
220.728	59.445	14.1	3.5
221.009	57.849	1	3.9
221.653	59.941	1	3.5
221.316	61.581	1	3.2
220.359	60.27	1	3
221.493	57.936	29.2	3.3
220.581	60.386	2.9	3.4
221.739	60.949	15	3.4
221.011	59.754	1	3.5
221.6	61.061	5	3.5
221.935	59.177	1	3.6
221.612	60.912	1	3
221.26	60.988	5	3.1
220.856	58.046	6.9	3.1
222.512	58.721	1	4
222.553	58.76	5	3.2
222.5	58.754	1	3.5
222.458	58.77	1	4.2
222.519	58.777	1	3.9
222.534	58.786	8.3	3.2
222.553	58.74	6.8	3.2
222.537	58.818	11.7	3.1
222.54	58.799	1	3.1
222.546	58.745	1	3.3
222.508	58.77	1	3.4
221.942	59.217	10	3.7
220.497	59.713	10	3.1
221.989	59.978	2.6	3.3
220.52	58.454	10	3
220.595	60.32	1	3.1
221.442	57.94	24.7	3
222.391	58.786	5.9	3.5
222.047	59.683	1	3.5
221.544	57.809	10	4.3
221.631	57.685	12.2	3.1
222.1	59.115	1	3
166.31	55.437	31.9	4.5
166.616	55.308	10.4	4
166.542	55.39	18.8	4.7
165.57	55.308	14.4	4.4
165.925	55.622	16.9	4.2
166.388	55.481	30	4.3
166.717	55.043	30	3.9
165.296	55.065	35	4.5
165.338	55.053	32.5	4.6
165.713	55.01	35	4.2
165.575	55.057	41.3	4.8
165.478	55.346	36.5	4
165.692	55.01	9.6	4.5
165.295	55.164	37.4	5
166.306	55.464	10	4.3
165.957	55.47	10	4.4
166.028	55.367	57.2	4.2
165.728	55.659	19.4	4.7
166.182	55.659	37.1	4
166.441	55.187	35	3.8
165.88	55.536	35	4.5
165.655	55.848	35	4.6
166.392	55.533	10	4.3
166.382	55.453	9.4	4.5
165.701	55.036	35	5
166.616	55.306	25	4.6
165.339	55.228	13.1	4.6
207.761	65.216	12.8	3.3
208.688	66.109	10.9	3.2
209.603	65.225	17.4	3.4
208.405	65.087	11.6	3
209.036	65.964	41.1	3
209.99	66.362	9.7	3.9
208.867	65.754	30.4	3.1
207.585	65.256	5	3.6
207.635	65.251	19.9	3
209.418	65.827	16.5	3.5
209.598	65.935	20.4	3.1
217.628	67.456	28.3	3
213.274	66.793	10	3.4
210.052	66.235	20	3.6
212.68	66.617	10	3.3
212.698	65.94	20	3.8
211.63	65.978	36.9	4
217.373	65.364	1	3.3
210.231	66.328	27.1	3.4
217.875	66.247	15.6	3.6
216.6	65.283	14	4.1
217.282	66.211	10	3.3
217.351	66.265	10	3.3
217.298	66.287	10	3.5
217.478	66.307	10.1	3.2
217.466	66.279	8	3.5
217.229	66.313	23.4	3.4
217.435	66.288	7.5	3.1
217.259	66.307	11	3.8
217.858	66.291	6.5	3.1
217.093	66.263	5.9	3.5
217.834	66.279	2.8	4.2
217.486	66.288	8.8	3.5
217.604	66.275	9.8	3.2
217.43	66.263	2.1	3.2
217.512	66.255	2.1	3.7
217.381	66.271	17	3.5
217.748	66.239	21.3	4
217.783	66.255	3.3	3.5
217.767	66.245	23	3.5
217.638	66.238	3.5	3
217.576	66.26	10	3
217.835	66.297	20	3.2
217.713	66.277	16.8	3.8
217.549	66.285	22	4
217.556	66.266	10	4.3
217.581	66.251	8.6	3
217.833	65.453	10	4.5
219.6	65.122	24.8	3
217.669	66.25	1.2	3
217.763	66.285	10	3.5
217.777	66.256	0.7	3.1
217.643	66.243	4.3	3.2
210.661	66.109	5.4	4.2
217.711	66.428	6.7	3.5
217.743	66.416	12	3
217.641	66.409	15.9	3.6
217.472	66.392	11.5	3.2
217.59	66.303	1.9	3
217.635	66.336	20	3.2
212.333	66.733	15	4.2
212.722	66.898	6.8	3.1
217.569	66.193	8.7	3.1
217.702	66.204	9	3
211.267	65.215	12.2	3.1
212.524	66.353	11.1	3
217.715	66.279	22.1	4.2
217.702	66.193	9.1	3.1
217.708	66.194	31.3	3
217.63	66.241	28.6	3.1
217.656	66.274	5.2	3.8
212.701	66.889	9.7	3.1
210.852	66.184	18.9	3.1
210.79	66.147	22	3.3
213.696	66.782	14.9	3.1
211.735	66.492	9.5	3.3
218.061	67.455	10.5	3.2
213.767	67.034	15.9	3.1
217.77	66.273	11.4	3.1
217.645	66.29	10	3.6
217.911	66.248	1.8	3.1
217.929	66.235	1.1	3.3
217.823	66.235	6.4	3.2
214.059	66.795	34.5	3.2
211.463	65.114	13.7	3.3
218.368	66.216	7.4	3.4
217.738	66.364	24.5	3
213.346	66.999	0.3	3
217.672	66.33	18	3.2
215.243	68.135	14.6	3
214.61	65.681	15.1	3.2
218.034	66.502	22.7	3.7
217.151	66.073	4.8	3.7
211.363	65.122	20.2	3.1
214.118	67.396	8.8	3
213.206	66.798	3.4	3.1
210.817	66.123	12	3.7
214.924	65.806	13	3
211.389	65.098	20	3
220	65.86	5	3
219.782	65.889	1	3.1
214.751	65.161	20	3.5
213.627	67.99	24.8	3.5
215.718	65.539	8.5	3.1
210.08	65.594	13.9	4
216.977	65.556	13	3
212.028	65.521	7.8	3
217.705	66.265	2.3	3.8
210.09	66.21	9.2	3
217.679	67.5	11.6	3.6
212.061	66.494	18.4	3.4
220.916	59.849	9.6	3.5
188.956	50.827	15.38	3.6
211.361	56.359	5.9	3
210.166	55.898	7.86	3.4
196.532	53.454	10	4.6
196.472	53.4	21.33	3.5
196.353	53.543	10	3
210.047	55.878	8.67	3.5
210.529	56.201	4.5	3
210.722	56.06	10	3.2
211.431	56.14	7.9	3.4
210.702	55.633	9.03	4
210.712	56.434	5	3.4
211.545	56.393	11.6	3
210.719	56.359	20.01	3.6
210.063	55.904	12	3.1
210.196	56.142	10.8	3.3
180.05	51.071	29	4.5
180.001	51.069	4.8	4.1
210.197	56.075	12	3.1
210.539	56.126	5.4	3.1
210.363	55.992	11.8	3.1
180.953	51.656	70.6	3
210.776	55.549	7	3.6
181.633	50.998	35	4.1
211.403	56.268	11.5	3.1
211.725	56.352	7.9	3.2
211.574	56.396	5.4	3.2
210.238	56.149	6.9	3.2
196.637	53.189	51.89	4.5
211.613	56.335	11.3	3.1
196.44	53.402	8.7	3
208.826	62.6	89	3
190.5	52.928	135.5	3.2
207.499	63.664	18.9	3
196.429	53.383	25	3.5
211.345	56.418	11.7	3.1
189.031	50.849	19.3	3.5
204.514	57.649	16.8	3.8
210.517	56.198	1.5	3
210.774	55.97	8.58	3.2
181.611	51.243	32.7	3.4
210.77	56.44	11.7	3
210.825	55.559	10	3.5
210.634	56.153	19.94	4.2
210.625	56.169	20.09	3.3
209.151	56.13	11.1	3.1
196.318	53.458	31.1	4
204.532	57.661	17.7	3.2
206.967	60.297	126.7	3.6
204.325	56.145	61.4	3.3
206.81	59.73	102.4	3.3
210.407	56.272	1.4	3.1
200.445	54.94	38.3	3
210.797	55.981	11.9	3.4
180.112	50.257	31.92	4.4
210.271	55.959	11.8	3
188.283	51.826	44.79	4.4
189.037	52.052	42.23	4.3
209.287	61.108	19.9	3
209.237	61.133	19.9	3.5
210.781	55.62	11.3	3.2
192.042	52.404	16.7	3.4
196.443	53.093	10	3.9
210.221	56.441	4.8	3.5
197.094	54.348	65.27	4.3
203.867	56.904	72.9	3.1
212.095	56.329	16.94	3
180.384	50.742	10	4.1
194.769	53.379	17.2	4.2
210.927	56.426	17.4	3.1
210.079	56.3	20.37	3.6
179.99	50.98	20	3.6
179.948	51.089	1.2	3
179.976	51.093	1	3.3
178.451	51.83	109.7	3.5
177.958	51.966	129.98	4.2
179.95	50.136	25.99	4.1
169.007	53.248	27.1	4.8
168.434	54.362	35	3.9
169.801	53.588	39.4	4.6
168.53	54.675	21.6	4.8
168.737	54.508	10	4.4
168.645	54.373	24.4	4.2
168.659	54.358	35	3.9
168.605	54.294	35	3.9
168.739	54.082	54.7	4.1
169.085	53.692	29	4.5
169.058	53.619	30	4.5
169.093	53.511	37.2	4.1
165.873	54.935	35	4.2
169.294	54.099	10	4.3
168.808	54.598	10	4.5
168.834	54.65	10	5
166.192	54.796	10	4.9
169.179	53.723	30	4.5
167.629	54.332	10	4.7
169.682	53.632	10	4
169.767	53.667	22.1	4.2
169.218	54.189	10	4.5
169.278	54.517	10	4.6
168.927	54.409	10	4.2
169.361	52.837	10	4.5
168.191	54.102	32.5	4.3
165.702	54.976	35	4
165.57	54.963	56.1	4.8
169.773	54.489	10	4.2
169.316	54.114	26.8	4
169.145	54.132	20	4.6
165.967	54.979	35	3.7
167.758	54.536	10	4.1
165.727	54.954	35	4.5
169.175	54.242	9.2	4.3
169.014	53.896	33.4	4.7
167.705	54.844	17.1	4.5
169.226	53.711	45.9	4.7
168.395	54.573	14.8	4.7
174.109	52.55	99.9	4.4
177.523	51.289	52.4	3.7
179.222	51.166	7.2	3.9
173.382	51.435	41.4	4.7
178.647	51.152	19.3	4
178.695	51.534	56.5	3.1
176.985	51.488	25.9	4.6
179.843	51.332	1	3.4
178.451	51.934	65.8	4
179.651	51.833	105.9	3.7
179.033	50.778	28.2	4.1
174.903	52.501	104.5	4.6
176.08	52.018	66.3	4.4
179.707	51.334	45.3	3.3
176.791	51.854	13.6	3.4
175.08	52.194	49.9	3.8
178.069	51.442	43.9	4.5
178.279	51.192	9.2	4
178.617	51.578	28.6	3.9
178.363	51.301	126.4	3.4
178.032	51.302	35.1	4.5
178.198	51.309	16.1	3.5
178.591	51.167	55.7	3.5
173.273	51.591	25	4.5
178.43	50.907	53.6	3.6
178.365	51.031	33.6	4.6
176.285	51.5	1	3.4
178.784	51.259	46.6	3.5
179.334	51.227	51.9	4.4
179.353	51.232	49.2	3.7
178.304	50.169	35.8	3.4
177.998	51.76	67.9	3.5
179.248	51.21	43.6	3.6
179.943	51.761	96	3.2
179.901	51.755	95	3
179.391	52.232	195.7	3.2
179.776	52.094	180.5	3.6
179.099	51.603	63.5	3.2
177.913	52.133	142.1	3.8
178.818	51.033	10	3.6
175.286	51.801	10	4.6
179.561	52.318	182.2	3.2
178.986	51.114	58.2	4.1
179.955	51.526	64.6	3.2
179.406	51.162	53.8	4.1
179.426	51.213	56	4.4
175.78	51.927	60.9	3.8
179.408	51.639	94.1	4
172.027	52.602	23.1	4
178.701	51.281	30.4	4.7
178.265	52.212	184.4	3.6
179.799	51.884	144.2	3
179.297	51.138	37.7	3.1
178.76	51.038	13.8	3.6
177.054	51.264	13.1	4
179.066	50.797	0.9	3.4
170.526	53.257	30	4.4
179.514	51.146	48	4.4
179.573	51.173	54.7	4.6
179.592	51.24	51.5	4.6
179.561	50.882	10	3.4
179.647	51.413	53.7	4.2
179.638	51.264	49.5	4.1
179.397	50.604	19.6	3.3
179.56	51.202	55	4.1
179.606	51.134	1.1	3
172.878	53.213	105.5	4.5
179.113	50.589	10	3.2
179.56	51.223	51.7	4.4
179.521	50.999	45.2	4
179.526	51.183	49.7	4.5
179.593	51.132	10	3.1
179.514	51.162	50.8	5.2
179.632	51.061	4.8	3.6
179.538	51.151	50.8	4.7
179.536	51.157	40.1	5
179.677	50.95	25.5	3.6
179.694	50.871	20.6	3.5
179.662	50.938	14	3.6
179.516	50.932	25.6	4.5
179.554	51.167	57.3	4.8
179.608	50.819	24.5	3.8
179.767	50.931	3.1	3.4
179.556	50.886	28.9	4.1
179.585	50.952	33.5	4.3
179.677	51.075	59.1	4.2
179.643	50.797	26.8	3.6
179.678	50.991	49.3	4
177.686	51.299	45.7	4.3
179.512	51.018	47.3	5
179.53	50.997	10.5	3.8
179.755	50.839	27.9	4.1
179.326	51.132	28.6	4
179.397	51.086	24.6	3.8
179.555	51.089	3.1	3.5
179.535	51.055	26.8	5.3
179.471	51.233	27.6	4.7
179.305	51.077	26.1	4
179.448	51.021	33.4	4.5
179.637	51.103	0.8	3.7
179.754	51.058	57.1	4
179.805	51.028	4.5	3.3
179.539	50.902	56.8	3.8
179.66	51.06	0.8	3.8
179.524	50.891	45.7	4.4
179.484	51.048	20.8	3.6
179.639	51.068	29.6	4.4
179.49	51.175	58.1	4.3
179.708	50.929	31.6	3.8
179.596	50.998	14.4	3.3
179.504	51.144	1.1	3.3
179.321	50.961	9.3	4.8
179.438	50.926	52.5	3.9
179.467	51.134	57.1	4.5
179.677	50.87	17.2	3.4
179.702	50.906	5.1	3.3
179.283	51.065	29.8	4.5
179.373	50.976	29.7	3.6
179.613	51.279	4.8	3.5
179.515	50.844	4.2	3.6
179.831	51.053	1.5	4
179.435	50.911	23.2	4.5
179.436	50.966	28.6	3.3
179.671	51.003	19.8	3.4
179.387	50.988	27.6	3.3
179.416	51.037	3.6	3.4
179.584	51.035	10.6	3.4
179.465	51.021	10	4.4
179.629	51.294	59.3	4.7
179.299	51.026	15.4	3.3
179.085	51.014	33.7	3.4
179.404	51.522	57.4	3.6
179.378	51.872	51.7	3.8
179.401	51.066	10	3.2
177.751	51.7	73.4	4.5
179.788	51.254	1	3.1
179.418	51.005	14.6	3.4
179.565	51.309	61.9	4.1
179.674	51.131	55.7	4.6
179.599	50.953	1	4
177.957	51.148	13.5	3.3
179.906	51.486	63.2	3
176.435	51.592	10	3.7
179.316	51.166	41.7	3.1
178.881	51.485	60	3.3
179.672	51.243	53.3	4.1
179.807	51.111	10	3
178.611	51.483	67.4	4
175.107	52.149	50	4.4
178.72	51.008	2.8	3.3
172.786	52.447	25	4.5
178.838	51.491	64.6	3.1
178.387	51.169	40.9	3.3
178.873	51.387	42.7	3.3
178.622	51.67	18.5	3.2
179.634	51.351	44.9	3.5
179.41	50.866	35	3.1
179.597	51.138	48.7	4.1
179.28	50.28	1	3.1
179.25	51.034	10	3.2
178.057	51.876	144	3.4
177.916	51.435	145.1	3.5
176.369	52.408	11	3.3
178.101	51.219	56	4.1
179.551	51.118	54.1	4.4
179.449	51.144	49.6	4.6
178.707	51.499	69.7	3.6
179.464	51.205	55.6	4.8
179.532	51.802	174.3	3.2
179.532	51.076	49.6	4.6
178.69	51.419	88.2	3.6
178.882	50.856	27.3	3.8
174.058	52.195	32.9	4.2
177.773	51.615	62.2	3.9
176.24	51.758	47.8	4.7
179.331	51.85	75	3.4
176.315	51.691	45.2	4.6
179.408	51.071	0.7	3.3
179.501	52.205	202.1	3.4
178.577	51.336	20.4	3.4
171.369	51.952	10	4
179.716	51.668	42.6	3.9
179.385	50.911	14.6	3.2
177.846	51.754	62.6	3
178.663	51.878	121.6	4.5
178.91	50.105	25	3.6
179.801	51.079	93.8	3.2
179.513	51.254	1	3.2
178.625	51.569	74.8	3.7
176.637	51.735	22.4	3.2
176.701	51.575	10	4.3
176.723	51.502	24.5	3
178.849	51.029	37.1	4.6
178.175	52.239	156.3	4.2
178.049	51.716	70.7	3.5
178.007	51.621	62.8	3.5
175.267	51.028	50.7	3.7
173.027	52.414	37	3.7
178.505	51.087	12.7	4.3
178.052	51.909	143.9	3.5
177.768	51.577	46.6	3.3
179.263	51.937	174.6	3.1
179.242	51.952	154.6	3.2
178.7	51.58	19.9	4.3
173.501	52.332	32.6	4.6
179.748	52.19	166	3.8
176.742	51.891	73.9	4.1
171.509	52.403	10	4.1
178.916	51.349	10	3.5
172.394	52.598	48.8	3.5
179.054	51.935	126.5	3.7
179.732	50.127	16.8	3.4
178.485	51.21	50.6	3.9
177.365	51.44	53.8	4.4
178.985	51.141	47.6	4.3
179.337	51.28	52.5	4.3
179.469	51.113	35	3.8
178.921	51.316	4.2	4.7
177.214	51.661	70.4	3.7
179.741	51.445	64.7	4.6
179.695	51.239	45.5	4
179.656	50.807	71.1	3.1
179.948	50.036	23.5	3.2
174.008	52.208	36.1	4.3
178.782	51.407	37.4	3.1
171.98	52.348	41.1	3.7
179.527	51.442	74.4	3.4
176.955	51.856	14.4	3.6
178.769	51.398	37.6	3.1
179.458	51.791	92.4	3.3
178.277	51.289	55	4.4
179.808	52.004	129.5	4.6
179.637	51.606	75.1	4.2
178.417	51.08	30.5	3.4
173.416	51.056	38.4	3.7
179.088	51.099	15	4.7
179.094	51.149	31.4	4.6
179.036	51.171	35.1	3.4
174.452	52.962	85.6	4.1
174.821	51.968	67.9	3.4
178.748	51.615	41.6	4.8
177.003	51.816	10	4.8
176.948	51.947	23.9	3.8
177.055	51.896	13.3	3.6
176.32	51.676	10	4.2
177.081	51.966	4.8	4.7
177.132	52.047	14.7	3.5
177.226	52.165	12.6	4.4
177.005	51.844	10	4
177.024	51.762	40.2	4.2
177.041	51.916	29.8	4.8
177.082	52.041	5.3	3.6
176.978	51.797	10	4
177.019	51.892	10.9	4.3
176.901	51.715	10	3.6
176.941	51.777	10	4
177.132	51.995	10	3.6
176.993	51.876	28.2	4.6
177.027	52.043	10	4.7
177.029	51.858	10	3.9
176.964	51.839	4.6	3.6
177.064	51.818	6.6	3.2
177.126	52.051	7	3.4
176.964	51.845	12.8	4.1
176.897	51.596	10	3.5
177.178	52.074	4.8	3.5
176.974	51.845	21.4	3.8
177.083	51.821	4.7	4.1
177.001	51.915	4.9	4.6
176.984	51.949	5.2	3.8
177.562	51.543	2.1	3.2
176.809	51.436	10	3.1
173.717	52.822	81.6	4.5
177.089	52.099	6.5	4
177.085	52.098	5.8	3.5
177.075	52.052	4	3.7
177.042	51.889	28.4	3.6
177.106	51.936	5	4.1
177.038	51.841	10	3.7
177.086	52.034	10	3.7
177.138	52.103	4.7	3.6
177.09	52.068	4.8	4.7
176.973	51.936	9.4	4.3
177.034	52.059	5.9	4
177.145	52.102	10	3.5
173.93	51.821	19.4	4
175.95	51.584	15.5	4.1
176.903	51.617	31.5	4
172.669	52.098	30.7	4.3
176.936	52.012	124.9	4.2
179.411	51.054	19.7	4.2
175.265	50.911	7	4.4
179.865	52.358	199.5	4.1
178.764	51.543	42.1	4.7
178.778	51.509	40.8	3.6
177.021	51.859	5.8	3.6
177.025	51.862	27.4	4.4
178.41	51.984	121	4.2
177.058	51.989	10.5	4.3
176.473	51.691	42.6	3.4
177.549	51.682	55.4	3.4
179.257	51.002	17.7	4.7
179.282	51.051	17.8	4.6
179.261	51.002	28.9	4.1
179.237	51.069	18.5	3.6
179.318	51.178	32.8	3.8
179.306	51.279	41.7	4.6
179.331	51.171	32.2	4.2
174.992	51.997	32.4	4.6
175.027	52.072	35.4	4.6
176.456	51.412	22.7	4.6
178.915	51.465	58	3.4
173.356	51.919	11.2	4.8
179.547	52.251	178.5	4.4
178.326	51.012	4.3	4.6
176.247	51.964	14.4	3.6
178.363	50.273	15.1	3.7
178.835	51.264	45	3.7
179.469	52.018	192.7	3.9
179.606	51.941	138.5	3.1
173.263	51.131	35	4
178.876	51.585	54.5	3.2
178.127	51.695	100.6	3.4
176.97	50.551	1	3.6
178.115	51.912	127.3	3.1
179.358	51.007	6.5	3.7
178.594	51.074	35	4.1
172.213	53.307	15	4.7
178.279	51.442	53.1	4.6
179.315	50.992	7.2	3.5
179.336	51.036	8.4	3.5
178.944	51.904	54.1	3.4
175.862	51.73	14.4	4.1
172.546	52.364	10	4.8
178.723	50.265	25.9	3.5
176.03	50.91	5	3.3
178.266	51.826	0.9	3.4
178.731	51.301	1.3	4.7
178.622	51.015	10	4.7
178.447	51.548	61.4	3
177.173	52.111	4.5	3.9
170.869	53.849	14.4	4.8
178.237	51.797	127.2	3.8
174.817	52.229	14.1	3
175.908	51.459	8.8	4.8
178.686	51.567	60.8	3.2
174.809	50.829	20.6	4.6
177.099	52.044	21.2	3
179.399	51.51	82.4	4.2
171.593	51.846	32.6	4.6
178.762	51.219	38.7	4.6
179.473	52.326	201.2	4.2
179.683	51.374	50.4	4.7
178.782	51.402	40.4	3.1
170.591	53.457	23.1	4.5
176.994	51.837	3.8	4.5
176.243	51.849	73.4	4.1
178.949	51.13	17	3.4
177.95	51.967	130.8	4.5
178.862	51.557	56.1	3.5
179.469	51.141	66	4.4
179.47	50.911	9.9	4.4
179.361	50.982	18.2	4.1
179.385	51.025	12.1	3.9
171.14	52.97	25.6	4.3
179.01	51.183	35.8	4.4
178.197	50.879	8.9	3.3
178.532	51.773	76.9	3.5
177.115	52.072	8.9	3.1
178.719	51.23	4.8	3.5
177.188	52.055	6.7	3.1
177.169	52.054	9.9	3.5
177.051	51.996	2.1	3.9
177.183	52.112	2.9	3.8
177.169	52.103	11.3	4
177.172	52.083	7.2	3
177.049	51.991	4.4	3.1
179.478	51.256	40	4.1
178.405	51.388	46.7	4.3
177.96	52.012	136.3	4.5
174.103	52.077	35	4.7
176.384	51.938	38.7	3.9
178.977	51.646	83.9	4.3
173.346	52.57	20.3	4.2
178.301	51.798	35	3.2
172.513	52.624	33.9	4.4
179.308	51.181	48.4	4.4
179.568	51.137	53	5.1
179.261	50.736	8.5	4.1
179.59	50.957	28.3	3.6
179.561	50.967	7.5	3.2
179.584	51.077	55.8	4.5
179.677	51.32	60.8	3.4
179.995	51.09	6.1	5
179.892	51.085	30	4.9
179.919	52.251	189.7	4.4
177.914	51.456	22.2	4
178.536	51.07	32	4.3
179.281	50.147	20.1	4.2
174.022	52.486	58.3	4.4
178.768	51.217	6.8	3.5
171.252	52.151	10	4.4
179.418	51.574	69	3.2
171.133	52.83	32.4	4.8
179.684	52.199	161.4	3.3
172.017	53.408	8.7	4.3
177.856	51.766	85.8	4
173.414	52.525	33.5	4.6
178.78	51.285	46.9	4.5
170.217	54.324	37.3	4.1
179.771	51.791	141.7	3.3
176.893	51.751	10	3.6
176.472	51.884	35	4.4
179.669	50.216	29.5	3.6
174.842	50.688	10	3.9
174.54	50.87	10	3.6
177.941	51.028	10	3.3
176.818	51.762	63.2	4.1
170.196	52.78	17.3	4.8
176.766	50.401	33.6	3.6
177.977	50.918	35	3.5
172.776	52.435	35	4
172.393	52.615	35	4
179.351	52.268	199.2	4.3
179.846	51.954	141.9	4.4
176.976	50.205	25.9	3.9
172.412	52.59	10	3.9
179.491	51.205	90.6	3.7
179.623	51.15	11.2	3.3
172.689	51.583	10	3.9
178.566	50.708	5.8	3.7
178.722	51.194	38	4.8
178.775	50.686	10	4
178.833	50.626	4.8	4
178.586	50.859	24.1	3.4
172.724	53.136	77.3	4.4
170.876	52.6	35	4.1
177.807	51.468	39.8	3.7
173.323	51.38	8	3.6
179.316	51.754	104.1	4.1
171.433	52.801	10	4.1
175.703	51.837	51.1	4.4
179.461	51.66	73.5	5.1
178.487	51.656	79	4.2
176.238	52.143	115.2	3.3
178.391	51.144	3.3	3
179.892	51.097	6.6	3.5
176.094	51.472	25.4	3.7
176.153	51.624	5.8	3.4
175.141	51.208	17.9	3.5
179.697	50.104	14.2	3.8
177.898	51.51	23.4	3.2
179.061	51.21	39.1	4.3
179.608	50.97	13.8	3.8
170.301	52.128	10	4.3
172.154	52.702	35.2	4.4
177.936	51.906	132.8	4.4
176.685	51.695	6	3.9
176.702	51.693	29.4	3.2
177.633	51.602	41.6	4.2
179.398	51.373	49.5	3.5
178.862	51.07	8.2	3.1
177.695	51.845	108.1	3.2
172.974	52	18.8	3.8
170.346	53.109	40.1	3.8
173.725	52.374	35.7	4.7
177.85	51.865	94.3	3.5
178.51	51.017	8	3.4
178.639	52.014	164.3	4.3
178.442	51.135	25.8	4.7
179.267	51.842	92.5	3.5
172.555	52.695	51.3	4.2
176.756	51.808	10.5	3.9
176.768	51.877	38.5	3.7
178.611	50.831	29.1	3.5
171.99	52.834	16.3	4.3
178.435	51.617	49.9	4.5
178.365	51.829	120.8	3.1
176.917	51.691	15	3.6
175.619	52.519	110.4	4.1
172.404	52.021	10	4.5
179.84	52.341	206.9	4.1
174.634	52.291	32.6	4.9
178.992	51.17	46.5	4.6
178.962	51.222	49.2	4.6
178.887	51.209	47.6	4.8
178.925	50.722	5.4	3.3
179.712	51.103	47.1	4.5
179.749	51.143	46.9	4.5
179.728	51.125	5.2	3.4
173.013	53.123	19.8	4.4
178.704	51.452	40.6	4.1
179.702	51.355	10	3.4
179.147	51.06	5.4	3
178.466	52.157	172.7	3.2
177.76	51.495	24.2	3.9
178.55	51.576	57.2	4.1
178.074	52.136	138.8	4.4
175.885	52.099	61.7	4.6
173.306	53.063	35	4
178.281	51.509	46.9	4.2
178.68	52.27	10	3
176.245	51.718	28.5	4.7
178.815	51.379	26.8	3.2
179.873	50.168	10.6	3.1
172.683	52.611	40.9	4.2
178.085	50.803	13.9	3.6
175.145	51.81	11.9	3.3
179.198	51.11	15	3
175.757	51.878	54.5	4.8
179.059	51.771	87.5	4.6
175.133	51.061	10	4
177.298	50.698	15.8	3.3
177.021	50.68	10	3.5
178.883	51.697	21	4.9
179.928	52.031	157.8	4.2
173.164	52.971	8.4	4.1
179.085	51.811	118.6	3.2
176.087	51.574	12.7	3
172.924	53.077	10	4.4
172.927	52.986	17.8	4.6
178.056	51.83	159.9	3
174.626	50.958	33	3.3
176.298	51.785	20.2	3
179.689	51.101	15.1	3.5
175.283	50.647	29.8	3.1
179.69	51.197	13.8	3.1
177.078	51.979	135.6	3
176.093	51.699	13.1	3.8
176.518	51.663	13.2	3.4
172.693	53.079	8.1	4.4
178.219	51.834	132.7	3
179.29	51.393	49.3	3.6
179.779	50.215	28.4	3.2
173.54	51.302	10	3.1
177.43	50.559	25	3.2
179.435	51.977	153	3
177.52	51.524	22.6	3
179.582	52.143	189.7	4.3
171.172	52.831	35	4.6
179.021	51.336	1.6	3
175.852	51.41	16.8	3.1
179.948	50.122	19.9	3.6
176.81	51.646	13	3.5
179.461	51.008	14.2	3.2
178.035	52.283	162.4	4.4
177.084	51.874	4.9	3.2
177.667	50.974	24.9	3.4
175.864	51.868	45.3	3.3
177.131	51.694	43.8	3.5
177.878	51.828	108.6	3
178.581	51.401	42.5	3.2
174.487	50.916	10	3
176.166	51.86	24	3.4
178.39	51.992	137.2	3
179.372	52.113	189.9	3.4
178.567	51.529	66.8	3.2
178.733	50.366	26.2	4.5
178.334	51.114	5	3.7
178.229	50.887	25.6	4.1
178.161	51.038	27.4	3.2
178.095	50.876	24.7	3.5
178.157	51.91	134.6	3.2
178.265	51.07	2.2	3.1
176.217	51.967	5.9	3
178.319	51.106	5.1	3.5
174.244	51.196	10	3
180	51.557	65.1	3
176.539	51.653	19.9	4.4
176.727	51.518	10	4.3
175.593	52.32	10.9	3.2
171.605	53.321	15.4	4.3
176.566	51.597	25	3.4
176.268	51.777	13.7	3.1
179.171	51.06	11.8	3.1
178.809	51.134	5.5	3
178.29	51.903	2.8	3
179.043	51.603	69.4	3.2
176.784	51.712	60	4.4
174.517	51.666	10	3.2
178.24	51.285	13.2	3.2
177.736	51.281	12.6	3.3
179.916	51.37	4.6	3
178.625	51.347	46.4	3
177.664	51.291	53.9	4.7
178.669	51.456	40	4.5
179.909	52.107	170	3
178.728	51.363	42.1	3.2
179.336	50.714	12.6	3.6
178.846	51.438	39.9	4.9
174.59	51.097	11.4	3.7
174.572	51.037	24.9	4.5
178.674	49.926	16.5	3.3
175.056	52.108	22.6	4
177.887	51.769	41.5	3.2
199.431	55.183	4.8	3.4
199.552	55.041	13.2	3.5
198.784	56.43	180.9	4.1
199.758	55.239	9.1	3.4
198.523	55.946	189.1	3
198.855	55.727	6.2	3
197.252	55.271	150.2	3.5
199.999	55.126	1.4	3.3
199.266	55.86	158.3	3.8
198.396	55.447	152.4	3
198.607	56.258	200.4	3.2
196.242	55	130.8	4.4
198.631	55.699	149.6	3.5
198.171	55.89	207	3.5
199.497	55.122	4.6	3.2
198.804	55.088	85.5	3
197.439	55.444	148	3.3
198.6	55.131	42	3.5
198.442	56.103	173.5	4.4
197.137	55.319	84.9	3.3
198.765	55.98	214.6	3.2
199.965	55.072	23.2	3.4
197.076	55.084	83.4	4.8
198.053	56.172	173.5	3.5
198.257	55.238	84.2	4.5
198.447	56.145	143.6	3.5
198.298	55.416	4.1	4.4
198.323	55.395	4.8	3.5
198.36	55.367	3.6	3.5
198.432	55.725	57.1	4.4
196.752	55.083	162.1	3.1
197.881	56.514	215.1	4.5
198.631	56.13	210.6	3.3
198.812	55.897	197.6	3.3
192.606	56.343	6.6	3.5
199.721	55.759	115.4	3.3
198.346	56.044	224.9	3.8
198.185	56.074	10	5
199.911	55.175	0.4	3.4
199.875	55.315	84.1	3
199.944	55.289	63	3
198.28	55.575	166.9	3.1
198.767	55.825	174.5	3.4
199.812	55.189	8.1	3.8
196.846	55.263	100.1	3.2
197.885	56.251	190.4	4.3
199.465	55.972	159.8	3.4
191.445	56.257	8.1	3.2
199.095	55.875	152.5	4.2
198.118	56.301	192.2	4.3
193.872	56.122	5.2	3.9
193.937	56.179	4.4	3.1
193.972	56.066	7.7	3
191.676	56.311	19.4	3.6
194.639	55.098	192.9	3.9
199.763	55.886	158.4	3.3
194.949	55.058	212.5	3
198.553	55.799	157.5	3
198.271	55.159	89.1	3.3
197.497	56.009	165.8	4.9
198.579	56.014	197.3	3.5
196.599	55.096	196.4	3.1
198.81	55.039	55.8	3.1
199.398	55.518	89	3.4
199.96	55.043	23.6	3.5
198.446	55.664	190.6	3.3
198.669	55.845	170.7	3.6
